-6.399000 9.895000 -1.180000 0 0 255 
-6.386000 9.806000 -1.170000 0 0 255 
-6.317000 9.568000 -1.142000 0 0 255 
-6.427000 9.669000 -1.159000 0 0 255 
-6.288000 9.236000 -1.108000 0 0 255 
-6.290000 9.177000 -1.103000 0 0 255 
-6.417000 9.300000 -1.123000 0 0 255 
-6.287000 9.049000 -1.090000 0 0 255 
-6.331000 9.021000 -1.090000 0 0 255 
-6.357000 8.939000 -1.084000 0 0 255 
-6.357000 8.879000 -1.079000 0 0 255 
-6.353000 8.756000 -1.067000 0 0 255 
-6.345000 8.688000 -1.060000 0 0 255 
-6.384000 8.712000 -1.065000 0 0 255 
-6.573000 8.854000 -1.091000 0 0 255 
-6.529000 8.737000 -1.077000 0 0 255 
-6.479000 8.613000 -1.062000 0 0 255 
-6.506000 8.593000 -1.062000 0 0 255 
-7.550000 8.496000 -1.131000 0 0 255 
-8.808000 8.471000 -1.231000 0 0 255 
-8.952000 8.449000 -1.241000 0 0 255 
-9.011000 8.451000 -1.246000 0 0 255 
-9.076000 8.460000 -1.253000 0 0 255 
-9.135000 8.461000 -1.258000 0 0 255 
-9.176000 8.472000 -1.262000 0 0 255 
-9.236000 8.474000 -1.268000 0 0 255 
-9.305000 8.484000 -1.274000 0 0 255 
-9.383000 8.502000 -1.282000 0 0 255 
-9.452000 8.511000 -1.289000 0 0 255 
-9.532000 8.529000 -1.298000 0 0 255 
-9.639000 8.570000 -1.310000 0 0 255 
-10.739000 9.492000 -1.478000 0 0 255 
-10.716000 9.442000 -1.472000 0 0 255 
-10.719000 9.384000 -1.468000 0 0 255 
-10.714000 9.321000 -1.463000 0 0 255 
-10.712000 9.260000 -1.458000 0 0 255 
-10.706000 9.196000 -1.452000 0 0 255 
-10.701000 9.133000 -1.447000 0 0 255 
-10.706000 9.080000 -1.444000 0 0 255 
-10.689000 9.036000 -1.439000 0 0 255 
-10.687000 8.977000 -1.434000 0 0 255 
-10.575000 8.770000 -1.408000 0 0 255 
-10.679000 8.800000 -1.420000 0 0 255 
-10.711000 8.770000 -1.421000 0 0 255 
-10.723000 8.639000 -1.412000 0 0 255 
-10.739000 8.597000 -1.411000 0 0 255 
-10.758000 8.557000 -1.409000 0 0 255 
-10.787000 8.524000 -1.410000 0 0 255 
-10.824000 8.499000 -1.411000 0 0 255 
-10.857000 8.470000 -1.412000 0 0 255 
-10.899000 8.448000 -1.415000 0 0 255 
-10.942000 8.454000 -1.419000 0 0 255 
-11.005000 8.447000 -1.424000 0 0 255 
-11.047000 8.425000 -1.427000 0 0 255 
-11.104000 8.413000 -1.431000 0 0 255 
-11.160000 8.401000 -1.435000 0 0 255 
-11.191000 8.369000 -1.436000 0 0 255 
-11.259000 8.365000 -1.442000 0 0 255 
-11.283000 8.355000 -1.444000 0 0 255 
-11.346000 8.347000 -1.449000 0 0 255 
-11.801000 8.569000 -1.508000 0 0 255 
-11.812000 8.520000 -1.505000 0 0 255 
-11.815000 8.466000 -1.502000 0 0 255 
-11.731000 8.350000 -1.486000 0 0 255 
-11.920000 8.289000 -1.500000 0 0 255 
-11.987000 8.280000 -1.506000 0 0 255 
-12.057000 8.272000 -1.512000 0 0 255 
-12.113000 8.255000 -1.516000 0 0 255 
-12.191000 8.252000 -1.524000 0 0 255 
-12.317000 8.254000 -1.536000 0 0 255 
-12.517000 8.218000 -1.553000 0 0 255 
-12.613000 8.224000 -1.563000 0 0 255 
-13.971000 8.172000 -1.695000 0 0 255 
-14.046000 8.157000 -1.702000 0 0 255 
-14.125000 8.144000 -1.709000 0 0 255 
-14.223000 8.141000 -1.719000 0 0 255 
-14.300000 8.126000 -1.726000 0 0 255 
-14.379000 8.111000 -1.733000 0 0 255 
-14.426000 8.077000 -1.736000 0 0 255 
-14.527000 8.104000 -1.747000 0 0 255 
-18.661000 10.266000 -2.293000 255 255 0 
-18.866000 10.302000 -2.316000 0 0 255 
-18.839000 10.210000 -2.308000 0 0 255 
-18.892000 10.162000 -2.311000 0 0 255 
-18.917000 10.099000 -2.310000 0 0 255 
-18.962000 10.085000 -2.314000 0 0 255 
-18.915000 9.984000 -2.304000 0 0 255 
-18.904000 9.902000 -2.298000 0 0 255 
-18.901000 9.825000 -2.294000 0 0 255 
-18.883000 9.740000 -2.287000 255 255 0 
-18.867000 9.657000 -2.281000 255 255 0 
-18.864000 9.581000 -2.277000 255 255 0 
-18.862000 9.505000 -2.273000 255 255 0 
-18.847000 9.461000 -2.269000 255 255 0 
-18.820000 9.373000 -2.261000 255 255 0 
-17.853000 -4.373000 -1.952000 0 0 255 
-17.848000 -4.432000 -1.953000 0 0 255 
-17.855000 -4.463000 -1.955000 0 0 255 
-17.845000 -4.520000 -1.955000 0 0 255 
-17.827000 -4.575000 -1.955000 0 0 255 
-17.777000 -4.622000 -1.950000 0 0 255 
-17.721000 -4.667000 -1.945000 0 0 255 
-17.694000 -4.720000 -1.944000 0 0 255 
-12.812000 -8.449000 -1.597000 0 0 255 
-12.758000 -8.470000 -1.593000 0 0 255 
-12.758000 -8.499000 -1.595000 0 0 255 
-12.678000 -8.504000 -1.587000 0 0 255 
-12.589000 -8.501000 -1.578000 0 0 255 
-12.565000 -8.543000 -1.579000 0 0 255 
-12.564000 -8.600000 -1.583000 0 0 255 
-12.521000 -8.629000 -1.580000 0 0 255 
-12.482000 -8.660000 -1.579000 0 0 255 
-12.497000 -8.699000 -1.583000 0 0 255 
-12.360000 -8.662000 -1.567000 0 0 255 
-12.326000 -8.696000 -1.566000 0 0 255 
-12.270000 -8.714000 -1.562000 0 0 255 
-12.236000 -8.748000 -1.561000 0 0 255 
-12.150000 -8.745000 -1.553000 0 0 255 
-12.092000 -8.761000 -1.548000 0 0 255 
-12.091000 -8.789000 -1.550000 0 0 255 
-12.036000 -8.807000 -1.546000 0 0 255 
-11.956000 -8.806000 -1.538000 255 255 0 
-11.771000 -8.728000 -1.516000 255 255 0 
-11.780000 -8.792000 -1.521000 255 255 0 
-11.807000 -8.870000 -1.529000 255 255 0 
-11.728000 -8.868000 -1.521000 255 255 0 
-11.635000 -8.827000 -1.510000 255 255 0 
-11.664000 -8.907000 -1.518000 255 255 0 
-11.633000 -8.941000 -1.518000 255 255 0 
-11.559000 -8.942000 -1.511000 255 255 0 
-11.547000 -8.991000 -1.513000 255 255 0 
-11.507000 -9.018000 -1.512000 255 255 0 
-11.424000 -9.012000 -1.504000 255 255 0 
-11.401000 -9.051000 -1.504000 255 255 0 
-11.263000 -8.971000 -1.486000 255 255 0 
-11.238000 -9.009000 -1.486000 255 255 0 
-11.230000 -9.061000 -1.489000 255 255 0 
-11.236000 -9.123000 -1.494000 255 255 0 
-11.136000 -9.101000 -1.484000 255 255 0 
-11.021000 -9.065000 -1.471000 255 255 0 
-11.039000 -9.138000 -1.478000 255 255 0 
-10.858000 -9.017000 -1.452000 255 255 0 
-10.826000 -9.049000 -1.452000 255 255 0 
-10.647000 -8.956000 -1.429000 0 0 255 
-10.673000 -9.036000 -1.437000 255 255 0 
-10.659000 -9.081000 -1.439000 255 255 0 
-10.586000 -9.077000 -1.433000 0 0 255 
-10.470000 -9.035000 -1.419000 0 0 255 
-10.569000 -9.149000 -1.437000 255 255 0 
-10.585000 -9.221000 -1.444000 255 255 0 
-10.420000 -9.135000 -1.422000 0 0 255 
-10.542000 -9.300000 -1.446000 255 255 0 
-10.463000 -9.290000 -1.438000 255 255 0 
-10.195000 -9.110000 -1.401000 0 0 255 
-10.214000 -9.185000 -1.408000 0 0 255 
-10.221000 -9.249000 -1.414000 0 0 255 
-10.421000 -9.459000 -1.448000 255 255 0 
-9.973000 -9.111000 -1.381000 0 0 255 
-10.126000 -9.308000 -1.410000 0 0 255 
-9.937000 -9.193000 -1.385000 0 0 255 
-9.981000 -9.292000 -1.397000 0 0 255 
-9.897000 -9.272000 -1.388000 0 0 255 
-9.970000 -9.400000 -1.404000 0 0 255 
-9.957000 -9.417000 -1.405000 0 0 255 
-9.858000 -9.382000 -1.393000 0 0 255 
-9.834000 -9.419000 -1.394000 0 0 255 
-9.726000 -9.374000 -1.381000 0 0 255 
-9.703000 -9.411000 -1.383000 0 0 255 
-9.670000 -9.438000 -1.382000 0 0 255 
-9.640000 -9.468000 -1.382000 0 0 255 
-9.646000 -9.504000 -1.385000 0 0 255 
-9.571000 -9.489000 -1.378000 0 0 255 
-9.355000 -9.335000 -1.347000 0 0 255 
-9.492000 -9.530000 -1.375000 0 0 255 
-9.443000 -9.541000 -1.372000 0 0 255 
-9.353000 -9.510000 -1.362000 0 0 255 
-10.078000 -10.308000 -1.488000 0 0 255 
-9.242000 -9.486000 -1.351000 0 0 255 
-9.191000 -9.493000 -1.347000 0 0 255 
-9.214000 -9.577000 -1.356000 0 0 255 
-9.130000 -9.550000 -1.347000 0 0 255 
-8.953000 -9.424000 -1.322000 0 0 255 
-9.813000 -10.391000 -1.473000 0 0 255 
-8.891000 -9.478000 -1.322000 0 0 255 
-8.895000 -9.512000 -1.325000 0 0 255 
-9.707000 -10.442000 -1.469000 0 0 255 
-8.849000 -9.582000 -1.327000 0 0 255 
-9.512000 -10.362000 -1.447000 255 255 0 
-8.885000 -9.805000 -1.349000 0 0 255 
-9.472000 -10.516000 -1.457000 0 0 255 
-9.007000 -10.064000 -1.381000 255 255 0 
-9.154000 -10.260000 -1.410000 255 255 0 
-9.368000 -10.567000 -1.453000 0 0 255 
-9.335000 -10.596000 -1.453000 0 0 255 
-9.294000 -10.616000 -1.452000 0 0 255 
-9.251000 -10.635000 -1.450000 0 0 255 
-9.206000 -10.650000 -1.448000 0 0 255 
-9.169000 -10.675000 -1.448000 0 0 255 
-9.139000 -10.674000 -1.445000 0 0 255 
-9.103000 -10.700000 -1.445000 0 0 255 
-9.058000 -10.715000 -1.443000 0 0 255 
-9.020000 -10.739000 -1.442000 0 0 255 
-8.980000 -10.759000 -1.441000 0 0 255 
-8.935000 -10.774000 -1.439000 0 0 255 
-8.888000 -10.786000 -1.436000 0 0 255 
-8.851000 -10.810000 -1.436000 0 0 255 
-8.820000 -10.807000 -1.433000 0 0 255 
-8.784000 -10.833000 -1.433000 0 0 255 
-8.738000 -10.845000 -1.431000 0 0 255 
-8.698000 -10.864000 -1.429000 0 0 255 
-8.650000 -10.875000 -1.427000 255 255 0 
-8.597000 -10.878000 -1.423000 255 255 0 
-8.559000 -10.901000 -1.423000 255 255 0 
-8.526000 -10.894000 -1.420000 255 255 0 
-8.492000 -10.921000 -1.420000 255 255 0 
-8.448000 -10.935000 -1.418000 255 255 0 
-8.406000 -10.952000 -1.416000 255 255 0 
-8.356000 -10.958000 -1.413000 255 255 0 
-8.318000 -10.979000 -1.413000 255 255 0 
-8.278000 -10.999000 -1.412000 255 255 0 
-8.256000 -11.005000 -1.411000 255 255 0 
-8.209000 -11.014000 -1.408000 255 255 0 
-8.169000 -11.033000 -1.407000 255 255 0 
-8.131000 -11.054000 -1.407000 255 255 0 
-8.066000 -11.038000 -1.401000 255 255 0 
-8.033000 -11.066000 -1.401000 255 255 0 
-7.996000 -11.088000 -1.401000 255 255 0 
-7.943000 -11.051000 -1.393000 255 255 0 
-7.896000 -11.060000 -1.391000 255 255 0 
-7.829000 -11.039000 -1.385000 255 255 0 
-7.782000 -11.046000 -1.382000 255 255 0 
-7.755000 -11.081000 -1.384000 255 255 0 
-7.719000 -11.104000 -1.383000 255 255 0 
-7.680000 -11.122000 -1.382000 255 255 0 
-7.610000 -11.059000 -1.372000 255 255 0 
-7.591000 -11.105000 -1.375000 255 255 0 
-7.541000 -11.106000 -1.372000 255 255 0 
-7.503000 -11.125000 -1.371000 255 255 0 
-7.453000 -11.127000 -1.368000 255 255 0 
-7.417000 -11.149000 -1.368000 255 255 0 
-7.358000 -11.136000 -1.363000 255 255 0 
-7.325000 -11.162000 -1.363000 255 255 0 
-7.223000 -11.046000 -1.345000 255 255 0 
-7.213000 -11.105000 -1.350000 255 255 0 
-7.173000 -11.121000 -1.349000 255 255 0 
-7.141000 -11.147000 -1.350000 255 255 0 
-7.110000 -11.176000 -1.351000 255 255 0 
-7.075000 -11.198000 -1.351000 255 255 0 
-7.022000 -11.193000 -1.347000 255 255 0 
-7.006000 -11.206000 -1.347000 255 255 0 
-6.956000 -11.204000 -1.344000 255 255 0 
-6.896000 -11.186000 -1.338000 255 255 0 
-6.859000 -11.206000 -1.338000 255 255 0 
-6.827000 -11.232000 -1.339000 255 255 0 
-6.761000 -11.203000 -1.332000 255 255 0 
-6.747000 -11.259000 -1.337000 255 255 0 
-6.717000 -11.250000 -1.334000 255 255 0 
-6.669000 -11.248000 -1.331000 255 255 0 
-6.620000 -11.247000 -1.328000 255 255 0 
-6.577000 -11.254000 -1.326000 255 255 0 
-6.530000 -11.256000 -1.324000 255 255 0 
-6.487000 -11.263000 -1.322000 255 255 0 
-6.428000 -11.242000 -1.316000 255 255 0 
-6.390000 -11.257000 -1.315000 255 255 0 
-6.374000 -11.270000 -1.316000 255 255 0 
-6.321000 -11.259000 -1.312000 255 255 0 
-6.273000 -11.256000 -1.309000 255 255 0 
-6.231000 -11.264000 -1.307000 0 0 255 
-6.199000 -11.290000 -1.308000 255 255 0 
-6.137000 -11.261000 -1.302000 0 0 255 
-6.091000 -11.261000 -1.299000 0 0 255 
-6.072000 -11.267000 -1.298000 0 0 255 
-6.012000 -11.240000 -1.292000 0 0 255 
-5.947000 -11.205000 -1.285000 0 0 255 
-5.864000 -11.132000 -1.273000 0 0 255 
-5.848000 -11.187000 -1.278000 0 0 255 
-5.851000 -11.278000 -1.288000 0 0 255 
-5.796000 -11.259000 -1.283000 0 0 255 
-5.781000 -11.274000 -1.283000 0 0 255 
-5.717000 -11.235000 -1.276000 0 0 255 
-5.703000 -11.296000 -1.282000 0 0 255 
-5.608000 -11.195000 -1.266000 0 0 255 
-5.583000 -11.233000 -1.269000 0 0 255 
-5.575000 -11.306000 -1.276000 0 0 255 
-5.516000 -11.275000 -1.270000 0 0 255 
-5.509000 -11.307000 -1.273000 0 0 255 
-5.471000 -11.319000 -1.272000 0 0 255 
-5.469000 -11.404000 -1.281000 0 0 255 
-5.406000 -11.366000 -1.274000 0 0 255 
-5.374000 -11.390000 -1.275000 0 0 255 
-5.319000 -11.367000 -1.269000 0 0 255 
-5.295000 -11.407000 -1.272000 0 0 255 
-5.267000 -11.394000 -1.270000 0 0 255 
-5.246000 -11.443000 -1.274000 0 0 255 
-5.225000 -11.494000 -1.278000 0 0 255 
-5.184000 -11.499000 -1.277000 0 0 255 
-5.190000 -11.608000 -1.289000 255 255 0 
-4.985000 -11.342000 -1.251000 0 0 255 
-5.070000 -11.633000 -1.286000 255 255 0 
-5.069000 -11.681000 -1.291000 255 255 0 
-5.014000 -11.655000 -1.285000 255 255 0 
-4.863000 -11.404000 -1.252000 0 0 255 
-4.907000 -11.607000 -1.275000 0 0 255 
-4.889000 -11.665000 -1.281000 255 255 0 
-4.816000 -11.594000 -1.270000 0 0 255 
-4.765000 -11.574000 -1.265000 0 0 255 
-4.754000 -11.600000 -1.268000 0 0 255 
-4.706000 -11.585000 -1.264000 0 0 255 
-4.694000 -11.661000 -1.272000 0 0 255 
-4.604000 -11.543000 -1.255000 0 0 255 
-4.611000 -11.666000 -1.269000 0 0 255 
-4.602000 -11.751000 -1.278000 255 255 0 
-4.453000 -11.476000 -1.241000 0 0 255 
-4.560000 -11.807000 -1.282000 255 255 0 
-4.523000 -11.822000 -1.282000 255 255 0 
-4.485000 -11.832000 -1.282000 255 255 0 
-4.445000 -11.841000 -1.281000 255 255 0 
-4.405000 -11.847000 -1.280000 255 255 0 
-4.365000 -11.853000 -1.279000 255 255 0 
-4.330000 -11.873000 -1.280000 255 255 0 
-4.299000 -11.846000 -1.275000 255 255 0 
-4.269000 -11.878000 -1.278000 255 255 0 
-4.228000 -11.882000 -1.277000 255 255 0 
-4.193000 -11.901000 -1.277000 255 255 0 
-4.155000 -11.912000 -1.277000 255 255 0 
-4.117000 -11.923000 -1.277000 255 255 0 
-4.060000 -11.880000 -1.270000 255 255 0 
-4.037000 -11.934000 -1.275000 255 255 0 
-4.014000 -11.929000 -1.274000 255 255 0 
-3.980000 -11.953000 -1.275000 255 255 0 
-3.931000 -11.929000 -1.271000 255 255 0 
-3.901000 -11.966000 -1.274000 255 255 0 
-3.862000 -11.973000 -1.273000 255 255 0 
-3.799000 -11.905000 -1.263000 255 255 0 
-3.711000 -11.758000 -1.244000 0 0 255 
-3.756000 -11.967000 -1.268000 255 255 0 
-3.718000 -11.977000 -1.268000 255 255 0 
-3.681000 -11.990000 -1.268000 255 255 0 
-3.639000 -11.988000 -1.267000 255 255 0 
-3.586000 -11.948000 -1.261000 255 255 0 
-3.562000 -12.005000 -1.266000 255 255 0 
-3.525000 -12.018000 -1.266000 255 255 0 
-3.450000 -11.833000 -1.243000 0 0 255 
-3.462000 -12.012000 -1.264000 255 255 0 
-3.423000 -12.021000 -1.263000 255 255 0 
-3.384000 -12.026000 -1.263000 255 255 0 
-3.343000 -12.025000 -1.261000 255 255 0 
-3.308000 -12.047000 -1.263000 255 255 0 
-3.267000 -12.044000 -1.261000 255 255 0 
-3.243000 -12.030000 -1.259000 255 255 0 
-3.209000 -12.055000 -1.261000 255 255 0 
-3.166000 -12.046000 -1.258000 255 255 0 
-3.127000 -12.050000 -1.258000 255 255 0 
-3.061000 -11.950000 -1.244000 0 0 255 
-2.953000 -11.684000 -1.211000 0 0 255 
-2.961000 -11.871000 -1.232000 0 0 255 
-2.897000 -11.772000 -1.219000 0 0 255 
-2.924000 -11.962000 -1.242000 0 0 255 
-2.816000 -11.683000 -1.207000 0 0 255 
-2.778000 -11.686000 -1.206000 0 0 255 
-2.727000 -11.635000 -1.199000 0 0 255 
-2.724000 -11.787000 -1.216000 0 0 255 
-2.703000 -11.867000 -1.225000 0 0 255 
-2.676000 -11.918000 -1.230000 0 0 255 
-2.695000 -12.091000 -1.250000 255 255 0 
-2.657000 -12.097000 -1.250000 255 255 0 
-2.619000 -12.105000 -1.250000 255 255 0 
-2.579000 -12.108000 -1.249000 255 255 0 
-2.532000 -12.073000 -1.244000 255 255 0 
-2.502000 -12.116000 -1.249000 255 255 0 
-2.462000 -12.116000 -1.248000 255 255 0 
-2.444000 -12.124000 -1.248000 255 255 0 
-2.404000 -12.124000 -1.247000 255 255 0 
-2.360000 -12.104000 -1.244000 255 255 0 
-2.326000 -12.129000 -1.246000 255 255 0 
-2.287000 -12.132000 -1.245000 255 255 0 
-2.248000 -12.133000 -1.245000 255 255 0 
-2.209000 -12.136000 -1.244000 255 255 0 
-2.188000 -12.132000 -1.243000 255 255 0 
-2.149000 -12.129000 -1.242000 255 255 0 
-2.111000 -12.138000 -1.242000 255 255 0 
-2.073000 -12.146000 -1.243000 255 255 0 
-2.032000 -12.137000 -1.241000 255 255 0 
-1.995000 -12.149000 -1.242000 255 255 0 
-1.956000 -12.152000 -1.241000 255 255 0 
-1.918000 -12.158000 -1.241000 255 255 0 
-1.897000 -12.149000 -1.240000 255 255 0 
-1.857000 -12.145000 -1.239000 255 255 0 
-1.817000 -12.135000 -1.237000 255 255 0 
-1.780000 -12.150000 -1.238000 255 255 0 
-1.741000 -12.152000 -1.237000 255 255 0 
-1.635000 -11.676000 -1.180000 0 0 255 
-1.651000 -12.060000 -1.225000 0 0 255 
-1.645000 -12.161000 -1.237000 255 255 0 
-1.599000 -12.107000 -1.230000 255 255 0 
-1.563000 -12.130000 -1.232000 255 255 0 
-1.522000 -12.107000 -1.229000 255 255 0 
-1.481000 -12.092000 -1.226000 255 255 0 
-1.439000 -12.064000 -1.222000 0 0 255 
-1.378000 -11.871000 -1.199000 0 0 255 
-1.372000 -11.977000 -1.212000 0 0 255 
-1.341000 -12.043000 -1.219000 0 0 255 
-1.315000 -12.154000 -1.231000 255 255 0 
-1.249000 -11.897000 -1.201000 0 0 255 
-1.234000 -12.118000 -1.226000 255 255 0 
-1.200000 -12.164000 -1.231000 255 255 0 
-1.158000 -12.132000 -1.227000 255 255 0 
-1.123000 -11.967000 -1.207000 0 0 255 
-1.106000 -12.192000 -1.233000 255 255 0 
-1.062000 -12.127000 -1.225000 255 255 0 
-1.015000 -12.031000 -1.214000 0 0 255 
-0.976000 -12.020000 -1.212000 0 0 255 
-0.949000 -12.154000 -1.227000 255 255 0 
-0.904000 -12.070000 -1.217000 0 0 255 
-0.877000 -11.964000 -1.205000 0 0 255 
-0.851000 -12.135000 -1.224000 255 255 0 
-0.804000 -12.007000 -1.209000 0 0 255 
-0.760000 -11.910000 -1.197000 0 0 255 
-0.721000 -11.891000 -1.195000 0 0 255 
-0.690000 -12.004000 -1.208000 0 0 255 
-0.659000 -12.121000 -1.221000 255 255 0 
-0.632000 -11.970000 -1.203000 0 0 255 
-0.590000 -11.890000 -1.194000 0 0 255 
-0.554000 -11.926000 -1.198000 0 0 255 
-0.520000 -11.993000 -1.205000 0 0 255 
-0.482000 -12.002000 -1.206000 0 0 255 
-0.445000 -11.998000 -1.206000 0 0 255 
-0.407000 -12.005000 -1.206000 0 0 255 
-0.390000 -12.061000 -1.213000 0 0 255 
-0.353000 -12.072000 -1.214000 255 255 0 
-0.315000 -12.077000 -1.215000 255 255 0 
-0.279000 -12.184000 -1.227000 255 255 0 
-0.241000 -12.194000 -1.228000 255 255 0 
-0.203000 -12.213000 -1.230000 255 255 0 
-0.162000 -12.031000 -1.209000 0 0 255 
-0.126000 -12.194000 -1.228000 255 255 0 
-0.107000 -12.127000 -1.220000 255 255 0 
-0.068000 -12.101000 -1.217000 255 255 0 
-0.029000 -11.936000 -1.198000 0 0 255 
0.008000 -11.903000 -1.194000 0 0 255 
0.046000 -11.964000 -1.201000 0 0 255 
0.083000 -11.895000 -1.193000 0 0 255 
0.121000 -12.005000 -1.206000 0 0 255 
0.140000 -11.962000 -1.201000 0 0 255 
0.177000 -11.953000 -1.200000 0 0 255 
0.216000 -12.026000 -1.208000 0 0 255 
0.253000 -11.989000 -1.204000 0 0 255 
0.290000 -11.981000 -1.203000 0 0 255 
0.327000 -11.944000 -1.199000 0 0 255 
0.364000 -11.935000 -1.198000 0 0 255 
0.383000 -11.928000 -1.197000 0 0 255 
0.416000 -11.796000 -1.182000 0 0 255 
0.455000 -11.854000 -1.189000 0 0 255 
0.492000 -11.831000 -1.186000 0 0 255 
0.532000 -11.911000 -1.196000 0 0 255 
0.570000 -11.925000 -1.198000 0 0 255 
0.605000 -11.864000 -1.191000 0 0 255 
0.626000 -11.910000 -1.196000 0 0 255 
0.664000 -11.910000 -1.197000 0 0 255 
0.703000 -11.938000 -1.200000 0 0 255 
0.744000 -12.005000 -1.208000 255 255 0 
0.782000 -12.000000 -1.208000 255 255 0 
0.819000 -11.988000 -1.207000 255 255 0 
0.858000 -11.999000 -1.209000 255 255 0 
0.891000 -11.939000 -1.202000 0 0 255 
0.913000 -11.983000 -1.207000 255 255 0 
0.951000 -11.976000 -1.207000 255 255 0 
0.984000 -11.924000 -1.201000 0 0 255 
1.020000 -11.907000 -1.199000 0 0 255 
1.067000 -12.012000 -1.212000 255 255 0 
1.104000 -11.993000 -1.210000 255 255 0 
1.137000 -11.948000 -1.205000 255 255 0 
1.150000 -11.883000 -1.198000 0 0 255 
1.193000 -11.933000 -1.204000 255 255 0 
1.234000 -11.964000 -1.208000 255 255 0 
1.268000 -11.923000 -1.204000 255 255 0 
1.308000 -11.945000 -1.207000 255 255 0 
1.343000 -11.917000 -1.204000 255 255 0 
1.382000 -11.932000 -1.206000 255 255 0 
1.401000 -11.932000 -1.207000 255 255 0 
1.439000 -11.930000 -1.207000 255 255 0 
1.481000 -11.966000 -1.212000 255 255 0 
1.519000 -11.958000 -1.211000 255 255 0 
1.561000 -11.992000 -1.216000 255 255 0 
1.597000 -11.970000 -1.214000 255 255 0 
1.625000 -11.896000 -1.206000 255 255 0 
1.646000 -11.909000 -1.208000 255 255 0 
1.681000 -11.886000 -1.205000 255 255 0 
1.727000 -11.945000 -1.213000 255 255 0 
1.761000 -11.912000 -1.210000 255 255 0 
1.801000 -11.924000 -1.212000 255 255 0 
1.847000 -11.980000 -1.219000 255 255 0 
1.882000 -11.956000 -1.217000 255 255 0 
1.916000 -11.923000 -1.214000 255 255 0 
1.947000 -11.998000 -1.223000 255 255 0 
1.981000 -11.972000 -1.221000 255 255 0 
2.026000 -12.007000 -1.226000 255 255 0 
2.059000 -11.977000 -1.223000 255 255 0 
2.099000 -11.981000 -1.224000 255 255 0 
2.134000 -11.962000 -1.223000 255 255 0 
2.175000 -11.973000 -1.225000 255 255 0 
2.197000 -11.989000 -1.227000 255 255 0 
2.228000 -11.943000 -1.222000 255 255 0 
2.265000 -11.932000 -1.222000 255 255 0 
2.295000 -11.890000 -1.218000 255 255 0 
2.352000 -11.980000 -1.229000 255 255 0 
2.384000 -11.947000 -1.226000 255 255 0 
2.422000 -11.940000 -1.226000 255 255 0 
2.434000 -11.903000 -1.222000 255 255 0 
2.480000 -11.938000 -1.228000 255 255 0 
2.526000 -11.971000 -1.232000 255 255 0 
2.563000 -11.959000 -1.232000 255 255 0 
2.603000 -11.964000 -1.234000 255 255 0 
2.647000 -11.985000 -1.237000 255 255 0 
2.682000 -11.963000 -1.235000 255 255 0 
2.705000 -11.980000 -1.238000 255 255 0 
2.740000 -11.956000 -1.236000 255 255 0 
2.777000 -11.948000 -1.236000 255 255 0 
2.821000 -11.966000 -1.239000 255 255 0 
2.860000 -11.965000 -1.240000 255 255 0 
2.908000 -11.996000 -1.245000 255 255 0 
2.947000 -11.993000 -1.246000 255 255 0 
2.979000 -11.961000 -1.243000 255 255 0 
3.003000 -11.977000 -1.246000 255 255 0 
3.038000 -11.958000 -1.245000 255 255 0 
3.081000 -11.971000 -1.247000 255 255 0 
3.125000 -11.985000 -1.250000 255 255 0 
3.169000 -11.998000 -1.253000 255 255 0 
3.203000 -11.976000 -1.252000 255 255 0 
3.226000 -11.987000 -1.253000 255 255 0 
3.263000 -11.973000 -1.253000 255 255 0 
3.309000 -11.995000 -1.257000 0 0 255 
3.340000 -11.958000 -1.254000 255 255 0 
3.390000 -11.993000 -1.259000 0 0 255 
3.420000 -11.956000 -1.256000 255 255 0 
3.466000 -11.973000 -1.259000 0 0 255 
3.490000 -11.987000 -1.262000 0 0 255 
3.526000 -11.970000 -1.261000 0 0 255 
3.568000 -11.972000 -1.263000 0 0 255 
3.609000 -11.975000 -1.264000 0 0 255 
3.650000 -11.973000 -1.265000 0 0 255 
3.694000 -11.984000 -1.268000 0 0 255 
3.731000 -11.970000 -1.268000 0 0 255 
3.771000 -11.964000 -1.269000 0 0 255 
3.788000 -11.953000 -1.268000 0 0 255 
3.835000 -11.971000 -1.272000 0 0 255 
3.877000 -11.972000 -1.273000 0 0 255 
3.913000 -11.956000 -1.273000 0 0 255 
3.944000 -11.923000 -1.270000 0 0 255 
3.986000 -11.926000 -1.272000 0 0 255 
4.022000 -11.907000 -1.272000 0 0 255 
4.054000 -11.941000 -1.276000 0 0 255 
4.096000 -11.943000 -1.278000 0 0 255 
4.133000 -11.928000 -1.278000 0 0 255 
4.168000 -11.907000 -1.277000 0 0 255 
4.205000 -11.892000 -1.277000 0 0 255 
4.239000 -11.870000 -1.276000 0 0 255 
4.275000 -11.853000 -1.275000 0 0 255 
4.292000 -11.842000 -1.275000 0 0 255 
4.330000 -11.831000 -1.275000 0 0 255 
4.369000 -11.822000 -1.276000 0 0 255 
4.403000 -11.799000 -1.275000 0 0 255 
4.438000 -11.780000 -1.274000 0 0 255 
4.473000 -11.760000 -1.273000 0 0 255 
4.510000 -11.746000 -1.273000 0 0 255 
4.528000 -11.739000 -1.273000 0 0 255 
4.568000 -11.732000 -1.274000 0 0 255 
4.599000 -11.703000 -1.272000 0 0 255 
4.637000 -11.692000 -1.273000 0 0 255 
4.677000 -11.687000 -1.274000 0 0 255 
4.714000 -11.672000 -1.274000 0 0 255 
4.748000 -11.650000 -1.273000 0 0 255 
4.772000 -11.657000 -1.275000 0 0 255 
4.813000 -11.653000 -1.276000 0 0 255 
4.847000 -11.631000 -1.275000 0 0 255 
4.299000 -10.219000 -1.098000 0 0 255 
4.353000 -10.256000 -1.105000 0 0 255 
4.958000 -11.588000 -1.276000 0 0 255 
4.999000 -11.583000 -1.277000 0 0 255 
4.632000 -10.636000 -1.158000 0 0 255 
4.299000 -9.824000 -1.056000 0 0 255 
5.093000 -11.551000 -1.278000 0 0 255 
5.129000 -11.535000 -1.278000 0 0 255 
5.171000 -11.531000 -1.280000 0 0 255 
4.292000 -9.481000 -1.019000 0 0 255 
5.249000 -11.511000 -1.281000 0 0 255 
5.288000 -11.500000 -1.282000 0 0 255 
5.298000 -11.476000 -1.280000 0 0 255 
5.338000 -11.468000 -1.281000 0 0 255 
4.840000 -10.306000 -1.133000 0 0 255 
5.401000 -11.415000 -1.278000 0 0 255 
5.450000 -11.426000 -1.282000 0 0 255 
5.485000 -11.407000 -1.282000 0 0 255 
5.519000 -11.385000 -1.281000 0 0 255 
5.550000 -11.404000 -1.285000 0 0 255 
5.590000 -11.394000 -1.286000 0 0 255 
5.632000 -11.391000 -1.288000 0 0 255 
5.673000 -11.384000 -1.289000 0 0 255 
5.707000 -11.361000 -1.288000 0 0 255 
5.744000 -11.346000 -1.289000 0 0 255 
5.777000 -11.323000 -1.288000 0 0 255 
5.737000 -11.200000 -1.273000 0 0 255 
5.836000 -11.306000 -1.290000 0 0 255 
5.878000 -11.300000 -1.291000 0 0 255 
5.772000 -11.012000 -1.256000 255 255 0 
5.794000 -10.969000 -1.252000 255 255 0 
5.882000 -11.051000 -1.266000 0 0 255 
5.916000 -11.032000 -1.266000 0 0 255 
6.052000 -11.201000 -1.291000 0 0 255 
6.015000 -11.092000 -1.277000 0 0 255 
6.091000 -11.148000 -1.287000 0 0 255 
5.746000 -10.435000 -1.195000 0 0 255 
5.979000 -10.781000 -1.243000 255 255 0 
5.977000 -10.696000 -1.235000 255 255 0 
6.057000 -10.760000 -1.246000 255 255 0 
6.077000 -10.717000 -1.242000 255 255 0 
5.954000 -10.460000 -1.209000 255 255 0 
6.127000 -10.688000 -1.242000 255 255 0 
6.162000 -10.671000 -1.243000 255 255 0 
6.184000 -10.632000 -1.240000 255 255 0 
6.233000 -10.638000 -1.244000 255 255 0 
6.133000 -10.393000 -1.213000 255 255 0 
6.186000 -10.445000 -1.221000 255 255 0 
6.191000 -10.379000 -1.215000 255 255 0 
6.290000 -10.470000 -1.230000 255 255 0 
6.012000 -9.933000 -1.159000 0 0 255 
5.900000 -9.678000 -1.127000 0 0 255 
6.260000 -10.200000 -1.201000 0 0 255 
6.338000 -10.255000 -1.212000 255 255 0 
6.395000 -10.276000 -1.217000 255 255 0 
6.186000 -9.903000 -1.167000 0 0 255 
6.448000 -10.252000 -1.218000 255 255 0 
6.461000 -10.202000 -1.214000 255 255 0 
6.429000 -10.081000 -1.200000 0 0 255 
6.470000 -10.076000 -1.202000 0 0 255 
6.524000 -10.089000 -1.207000 0 0 255 
6.589000 -10.120000 -1.214000 255 255 0 
6.597000 -10.098000 -1.212000 255 255 0 
6.474000 -9.841000 -1.179000 0 0 255 
6.691000 -10.102000 -1.219000 255 255 0 
6.690000 -10.032000 -1.212000 255 255 0 
6.748000 -10.050000 -1.217000 255 255 0 
6.785000 -10.037000 -1.219000 255 255 0 
6.806000 -10.001000 -1.216000 255 255 0 
6.824000 -9.994000 -1.217000 255 255 0 
6.869000 -9.992000 -1.220000 255 255 0 
6.828000 -9.866000 -1.205000 0 0 255 
7.007000 -10.058000 -1.235000 255 255 0 
7.014000 -10.000000 -1.230000 255 255 0 
7.016000 -9.936000 -1.224000 255 255 0 
7.081000 -9.962000 -1.231000 255 255 0 
7.121000 -9.985000 -1.236000 255 255 0 
7.070000 -9.848000 -1.219000 255 255 0 
7.157000 -9.903000 -1.231000 255 255 0 
7.139000 -9.813000 -1.221000 255 255 0 
7.185000 -9.811000 -1.224000 255 255 0 
7.235000 -9.814000 -1.228000 255 255 0 
7.302000 -9.841000 -1.235000 255 255 0 
7.251000 -9.740000 -1.222000 255 255 0 
7.433000 -9.920000 -1.251000 255 255 0 
7.401000 -9.812000 -1.239000 255 255 0 
7.464000 -9.832000 -1.245000 255 255 0 
7.590000 -9.933000 -1.264000 255 255 0 
7.528000 -9.788000 -1.246000 255 255 0 
7.405000 -9.564000 -1.216000 0 0 255 
7.571000 -9.749000 -1.245000 255 255 0 
7.536000 -9.640000 -1.233000 255 255 0 
7.639000 -9.709000 -1.246000 255 255 0 
7.479000 -9.443000 -1.210000 0 0 255 
7.633000 -9.577000 -1.234000 255 255 0 
7.342000 -9.151000 -1.174000 0 0 255 
7.769000 -9.623000 -1.248000 255 255 0 
7.820000 -9.625000 -1.252000 255 255 0 
7.853000 -9.634000 -1.255000 255 255 0 
7.805000 -9.514000 -1.241000 255 255 0 
7.822000 -9.474000 -1.239000 255 255 0 
7.856000 -9.454000 -1.239000 255 255 0 
7.853000 -9.390000 -1.233000 255 255 0 
7.933000 -9.426000 -1.242000 255 255 0 
7.965000 -9.404000 -1.243000 255 255 0 
8.020000 -9.438000 -1.250000 255 255 0 
8.085000 -9.456000 -1.257000 255 255 0 
8.089000 -9.400000 -1.252000 255 255 0 
8.077000 -9.326000 -1.245000 255 255 0 
8.157000 -9.359000 -1.254000 255 255 0 
8.160000 -9.304000 -1.249000 255 255 0 
8.213000 -9.305000 -1.253000 255 255 0 
8.221000 -9.285000 -1.252000 255 255 0 
8.270000 -9.281000 -1.255000 255 255 0 
8.254000 -9.205000 -1.248000 255 255 0 
8.330000 -9.230000 -1.256000 255 255 0 
8.349000 -9.194000 -1.254000 255 255 0 
8.357000 -9.144000 -1.250000 255 255 0 
8.430000 -9.166000 -1.258000 255 255 0 
8.159000 -8.843000 -1.209000 0 0 255 
8.489000 -9.144000 -1.261000 255 255 0 
8.357000 -8.944000 -1.233000 255 255 0 
8.531000 -9.074000 -1.258000 255 255 0 
8.569000 -9.058000 -1.260000 255 255 0 
8.625000 -9.059000 -1.265000 255 255 0 
8.627000 -9.005000 -1.260000 255 255 0 
8.651000 -9.001000 -1.262000 255 255 0 
8.657000 -8.951000 -1.258000 255 255 0 
8.734000 -8.974000 -1.266000 255 255 0 
8.787000 -8.972000 -1.270000 255 255 0 
8.810000 -8.939000 -1.269000 255 255 0 
8.825000 -8.898000 -1.267000 255 255 0 
8.906000 -8.924000 -1.276000 255 255 0 
8.930000 -8.892000 -1.275000 255 255 0 
8.791000 -8.725000 -1.250000 255 255 0 
9.023000 -8.900000 -1.284000 255 255 0 
9.060000 -8.881000 -1.285000 255 255 0 
8.989000 -8.756000 -1.269000 255 255 0 
9.039000 -8.750000 -1.273000 255 255 0 
9.085000 -8.739000 -1.276000 255 255 0 
9.102000 -8.701000 -1.274000 255 255 0 
9.219000 -8.785000 -1.291000 255 255 0 
9.254000 -8.763000 -1.292000 255 255 0 
9.282000 -8.734000 -1.292000 255 255 0 
9.319000 -8.714000 -1.294000 255 255 0 
9.347000 -8.685000 -1.294000 255 255 0 
9.349000 -8.633000 -1.290000 255 255 0 
9.401000 -8.626000 -1.294000 255 255 0 
9.460000 -8.653000 -1.301000 255 255 0 
9.540000 -8.672000 -1.309000 0 0 255 
9.548000 -8.624000 -1.306000 255 255 0 
9.597000 -8.614000 -1.310000 255 255 0 
9.639000 -8.597000 -1.312000 0 0 255 
9.670000 -8.571000 -1.313000 0 0 255 
9.718000 -8.559000 -1.316000 0 0 255 
12.759000 -7.220000 -1.516000 0 0 255 
12.778000 -7.178000 -1.516000 0 0 255 
12.875000 -6.995000 -1.515000 0 0 255 
12.973000 -6.917000 -1.521000 0 0 255 
12.995000 -6.876000 -1.521000 0 0 255 
13.045000 -6.746000 -1.519000 0 0 255 
13.045000 -6.694000 -1.517000 0 0 255 
11.766000 -5.780000 -1.335000 255 255 0 
11.860000 -5.780000 -1.345000 255 255 0 
14.228000 -4.743000 -1.556000 0 0 255 
14.454000 -4.220000 -1.563000 0 0 255 
14.440000 -4.167000 -1.560000 0 0 255 
14.424000 -4.138000 -1.557000 0 0 255 
14.450000 -4.096000 -1.558000 0 0 255 
14.499000 -4.061000 -1.563000 0 0 255 
14.520000 -4.018000 -1.564000 0 0 255 
14.559000 -3.979000 -1.567000 0 0 255 
14.571000 -3.934000 -1.567000 0 0 255 
14.564000 -3.883000 -1.565000 0 0 255 
14.567000 -3.859000 -1.564000 0 0 255 
14.567000 -3.810000 -1.563000 0 0 255 
14.573000 -3.763000 -1.562000 0 0 255 
14.585000 -3.717000 -1.562000 0 0 255 
14.593000 -3.670000 -1.562000 0 0 255 
13.670000 9.968000 -1.878000 255 255 0 
13.685000 10.045000 -1.885000 255 255 0 
13.668000 10.098000 -1.887000 255 255 0 
13.628000 10.135000 -1.886000 255 255 0 
13.550000 10.143000 -1.879000 255 255 0 
8.439000 14.120000 -1.820000 0 0 255 
8.404000 14.111000 -1.817000 0 0 255 
8.366000 14.150000 -1.819000 0 0 255 
8.283000 14.109000 -1.809000 0 0 255 
8.252000 14.159000 -1.813000 0 0 255 
8.208000 14.185000 -1.813000 0 0 255 
8.133000 14.157000 -1.805000 0 0 255 
8.076000 14.162000 -1.802000 0 0 255 
8.012000 14.100000 -1.792000 0 0 255 
7.946000 14.087000 -1.786000 0 0 255 
7.895000 14.100000 -1.785000 0 0 255 
7.848000 14.120000 -1.784000 0 0 255 
7.796000 14.130000 -1.782000 0 0 255 
7.744000 14.141000 -1.780000 0 0 255 
7.694000 14.154000 -1.779000 0 0 255 
7.661000 14.200000 -1.782000 0 0 255 
7.601000 14.142000 -1.772000 0 0 255 
7.548000 14.150000 -1.770000 0 0 255 
7.497000 14.161000 -1.768000 0 0 255 
7.430000 14.142000 -1.762000 0 0 255 
7.380000 14.153000 -1.760000 0 0 255 
7.328000 14.162000 -1.758000 0 0 255 
7.271000 14.162000 -1.755000 0 0 255 
7.244000 14.163000 -1.754000 0 0 255 
7.195000 14.177000 -1.753000 0 0 255 
7.174000 14.247000 -1.759000 0 0 255 
7.073000 14.156000 -1.744000 0 0 255 
7.058000 14.239000 -1.752000 0 0 255 
6.997000 14.227000 -1.747000 0 0 255 
6.895000 14.131000 -1.731000 0 0 255 
6.856000 14.108000 -1.726000 0 0 255 
6.834000 14.176000 -1.733000 0 0 255 
6.786000 14.190000 -1.732000 0 0 255 
6.698000 14.118000 -1.719000 0 0 255 
6.654000 14.141000 -1.719000 0 0 255 
6.620000 14.185000 -1.723000 0 0 255 
6.541000 14.130000 -1.712000 0 0 255 
6.500000 14.158000 -1.713000 0 0 255 
6.477000 14.166000 -1.713000 0 0 255 
6.411000 14.139000 -1.707000 0 0 255 
6.360000 14.145000 -1.705000 0 0 255 
6.320000 14.176000 -1.706000 0 0 255 
6.309000 14.272000 -1.716000 0 0 255 
6.240000 14.235000 -1.709000 0 0 255 
6.136000 14.118000 -1.691000 0 0 255 
6.116000 14.133000 -1.691000 0 0 255 
6.063000 14.132000 -1.689000 0 0 255 
6.023000 14.160000 -1.690000 0 0 255 
5.983000 14.190000 -1.691000 0 0 255 
5.943000 14.220000 -1.693000 0 0 255 
5.918000 14.286000 -1.699000 0 0 255 
5.852000 14.253000 -1.692000 0 0 255 
5.808000 14.209000 -1.685000 0 0 255 
5.796000 14.310000 -1.696000 0 0 255 
5.770000 14.374000 -1.702000 0 0 255 
5.731000 14.409000 -1.705000 0 0 255 
5.676000 14.401000 -1.701000 0 0 255 
5.637000 14.435000 -1.703000 0 0 255 
5.613000 14.509000 -1.711000 0 0 255 
5.560000 14.508000 -1.708000 0 0 255 
5.557000 14.566000 -1.715000 0 0 255 
5.494000 14.539000 -1.709000 0 0 255 
5.422000 14.486000 -1.700000 0 0 255 
5.374000 14.497000 -1.699000 0 0 255 
5.334000 14.527000 -1.701000 0 0 255 
5.289000 14.546000 -1.701000 0 0 255 
5.265000 14.624000 -1.709000 0 0 255 
5.235000 14.613000 -1.706000 0 0 255 
5.214000 14.699000 -1.715000 0 0 255 
5.234000 14.905000 -1.740000 0 0 255 
5.201000 14.960000 -1.745000 0 0 255 
5.219000 15.168000 -1.770000 0 0 255 
5.230000 15.357000 -1.792000 0 0 255 
5.279000 15.664000 -1.830000 0 0 255 
5.326000 15.887000 -1.858000 0 0 255 
5.321000 16.041000 -1.876000 0 0 255 
5.342000 16.274000 -1.904000 0 0 255 
2.911000 15.260000 -1.708000 0 0 255 
2.889000 15.409000 -1.725000 0 0 255 
2.851000 15.477000 -1.733000 0 0 255 
2.812000 15.538000 -1.739000 0 0 255 
2.764000 15.553000 -1.740000 0 0 255 
2.726000 15.620000 -1.747000 0 0 255 
2.722000 15.746000 -1.763000 0 0 255 
2.711000 15.983000 -1.791000 0 0 255 
2.424000 14.556000 -1.612000 0 0 255 
2.364000 14.471000 -1.601000 0 0 255 
2.307000 14.408000 -1.592000 0 0 255 
2.273000 14.490000 -1.601000 0 0 255 
2.207000 14.360000 -1.584000 0 0 255 
2.214000 14.559000 -1.609000 0 0 255 
2.132000 14.319000 -1.578000 0 0 255 
2.095000 14.386000 -1.586000 0 0 255 
2.044000 14.352000 -1.580000 0 0 255 
2.000000 14.362000 -1.581000 0 0 255 
1.968000 14.468000 -1.593000 0 0 255 
1.931000 14.541000 -1.602000 0 0 255 
1.855000 14.307000 -1.572000 0 0 255 
1.851000 14.460000 -1.590000 0 0 255 
1.817000 14.554000 -1.601000 0 0 255 
1.762000 14.487000 -1.592000 0 0 255 
1.711000 14.441000 -1.586000 0 0 255 
1.665000 14.439000 -1.585000 0 0 255 
1.627000 14.509000 -1.593000 0 0 255 
1.567000 14.388000 -1.578000 0 0 255 
1.545000 14.390000 -1.578000 0 0 255 
1.491000 14.314000 -1.568000 0 0 255 
1.449000 14.348000 -1.571000 0 0 255 
1.394000 14.250000 -1.559000 0 0 255 
1.355000 14.315000 -1.566000 0 0 255 
1.304000 14.252000 -1.558000 0 0 255 
1.276000 14.442000 -1.581000 0 0 255 
1.220000 14.320000 -1.565000 0 0 255 
1.203000 14.389000 -1.573000 0 0 255 
1.147000 14.258000 -1.557000 0 0 255 
1.111000 14.376000 -1.571000 0 0 255 
1.065000 14.378000 -1.571000 0 0 255 
1.022000 14.405000 -1.574000 0 0 255 
0.967000 14.267000 -1.556000 0 0 255 
0.929000 14.369000 -1.569000 0 0 255 
0.910000 14.428000 -1.576000 0 0 255 
0.862000 14.397000 -1.571000 0 0 255 
0.814000 14.342000 -1.564000 0 0 255 
0.771000 14.392000 -1.570000 0 0 255 
0.727000 14.413000 -1.572000 0 0 255 
0.685000 14.480000 -1.580000 0 0 255 
0.638000 14.445000 -1.576000 0 0 255 
0.614000 14.434000 -1.574000 0 0 255 
0.566000 14.356000 -1.565000 0 0 255 
0.519000 14.300000 -1.558000 0 0 255 
0.475000 14.320000 -1.560000 0 0 255 
0.428000 14.278000 -1.554000 0 0 255 
0.394000 14.700000 -1.606000 0 0 255 
0.347000 14.643000 -1.599000 0 0 255 
0.294000 14.275000 -1.554000 0 0 255 
0.272000 14.313000 -1.558000 0 0 255 
0.227000 14.322000 -1.559000 0 0 255 
0.182000 14.311000 -1.558000 0 0 255 
0.138000 14.450000 -1.575000 0 0 255 
0.092000 14.196000 -1.544000 0 0 255 
0.040000 9.258000 -0.937000 0 0 255 
0.011000 9.065000 -0.914000 0 0 255 
-0.059000 8.894000 -0.893000 0 0 255 
-0.143000 8.917000 -0.896000 0 0 255 
-0.377000 8.819000 -0.884000 0 0 255 
-0.417000 8.793000 -0.882000 0 0 255 
-0.445000 8.800000 -0.882000 0 0 255 
-0.473000 8.800000 -0.883000 0 0 255 
-0.502000 8.825000 -0.886000 0 0 255 
-0.528000 8.785000 -0.881000 0 0 255 
-0.584000 8.796000 -0.883000 0 0 255 
-0.860000 8.781000 -0.884000 0 0 255 
-1.404000 8.761000 -0.890000 0 0 255 
-1.431000 8.749000 -0.889000 0 0 255 
-1.532000 8.760000 -0.892000 0 0 255 
-2.406000 10.129000 -1.079000 0 0 255 
-2.495000 10.147000 -1.084000 0 0 255 
-2.522000 10.121000 -1.081000 0 0 255 
-2.582000 10.090000 -1.079000 0 0 255 
-2.283000 8.709000 -0.906000 0 0 255 
-2.374000 8.940000 -0.936000 0 0 255 
-4.170000 14.612000 -1.666000 0 0 255 
-4.212000 14.585000 -1.665000 0 0 255 
-4.265000 14.597000 -1.668000 0 0 255 
-4.283000 14.573000 -1.666000 0 0 255 
-4.341000 14.599000 -1.671000 0 0 255 
-4.384000 14.576000 -1.669000 0 0 255 
-4.420000 14.532000 -1.666000 0 0 255 
-4.459000 14.495000 -1.663000 0 0 255 
-4.624000 14.864000 -1.712000 0 0 255 
-4.626000 14.709000 -1.694000 0 0 255 
-4.601000 14.549000 -1.674000 0 0 255 
-4.668000 14.600000 -1.683000 0 0 255 
-4.713000 14.586000 -1.683000 0 0 255 
-4.792000 14.671000 -1.695000 0 0 255 
-4.867000 14.744000 -1.707000 0 0 255 
-4.889000 14.655000 -1.697000 0 0 255 
-5.071000 15.040000 -1.749000 0 0 255 
-4.982000 14.628000 -1.698000 0 0 255 
-5.113000 14.932000 -1.738000 0 0 255 
-5.204000 15.043000 -1.755000 0 0 255 
-5.086000 14.557000 -1.694000 0 0 255 
-5.272000 14.937000 -1.745000 0 0 255 
-5.335000 14.965000 -1.751000 0 0 255 
-5.383000 14.950000 -1.752000 0 0 255 
-5.339000 14.685000 -1.719000 0 0 255 
-5.581000 15.273000 -1.797000 0 0 255 
-5.531000 14.990000 -1.762000 0 0 255 
-5.376000 14.433000 -1.692000 0 0 255 
-5.760000 15.313000 -1.809000 0 0 255 
-5.818000 15.321000 -1.813000 0 0 255 
-5.716000 14.913000 -1.762000 0 0 255 
-5.791000 14.967000 -1.771000 0 0 255 
-5.819000 14.899000 -1.764000 0 0 255 
-5.632000 14.356000 -1.694000 0 0 255 
-7.879000 16.800000 -2.079000 0 0 255 
-7.859000 16.623000 -2.058000 0 0 255 
-7.830000 16.428000 -2.035000 0 0 255 
-7.879000 16.398000 -2.034000 0 0 255 
-7.943000 16.398000 -2.038000 0 0 255 
-8.045000 16.477000 -2.052000 0 0 255 
-7.935000 16.124000 -2.007000 0 0 255 
-7.987000 16.165000 -2.014000 0 0 255 
-8.030000 16.125000 -2.012000 0 0 255 
-8.091000 16.119000 -2.015000 0 0 255 
-8.046000 15.906000 -1.989000 0 0 255 
-8.093000 15.876000 -1.988000 0 0 255 
-8.082000 15.732000 -1.972000 0 0 255 
-7.996000 15.446000 -1.936000 0 0 255 
-8.034000 15.401000 -1.933000 0 0 255 
-8.129000 15.522000 -1.952000 0 0 255 
-8.210000 15.558000 -1.960000 0 0 255 
-8.149000 15.327000 -1.932000 0 0 255 
-8.252000 15.403000 -1.946000 0 0 255 
-8.141000 15.082000 -1.905000 0 0 255 
-8.223000 15.121000 -1.914000 0 0 255 
-8.251000 15.058000 -1.909000 0 0 255 
-8.304000 15.099000 -1.916000 0 0 255 
-8.325000 15.026000 -1.910000 0 0 255 
-8.296000 14.863000 -1.890000 0 0 255 
-8.442000 15.013000 -1.915000 0 0 255 
-8.471000 14.956000 -1.911000 0 0 255 
-8.642000 15.144000 -1.941000 0 0 255 
-8.604000 14.969000 -1.920000 0 0 255 
-8.504000 14.743000 -1.890000 0 0 255 
-8.407000 14.471000 -1.855000 0 0 255 
-8.424000 14.394000 -1.848000 0 0 255 
-8.624000 14.631000 -1.886000 0 0 255 
-8.612000 14.507000 -1.872000 0 0 255 
-8.767000 14.662000 -1.898000 0 0 255 
-8.758000 14.542000 -1.885000 0 0 255 
-8.836000 14.567000 -1.892000 0 0 255 
-8.870000 14.572000 -1.895000 0 0 255 
-9.018000 14.712000 -1.919000 0 0 255 
-9.108000 14.752000 -1.929000 0 0 255 
-9.067000 14.584000 -1.909000 0 0 255 
-9.079000 14.501000 -1.901000 0 0 255 
-9.203000 14.597000 -1.919000 0 0 255 
-9.278000 14.615000 -1.926000 0 0 255 
-9.313000 14.619000 -1.929000 0 0 255 
-6.306000 9.580000 -1.209000 0 0 255 
-6.399000 9.654000 -1.223000 0 0 255 
-6.297000 9.436000 -1.193000 0 0 255 
-6.291000 9.208000 -1.170000 0 0 255 
-6.285000 9.137000 -1.162000 0 0 255 
-6.303000 9.042000 -1.154000 0 0 255 
-6.453000 9.226000 -1.183000 0 0 255 
-6.321000 8.918000 -1.143000 0 0 255 
-6.304000 8.835000 -1.133000 0 0 255 
-6.292000 8.702000 -1.119000 0 0 255 
-6.378000 8.763000 -1.131000 0 0 255 
-6.392000 8.753000 -1.131000 0 0 255 
-6.425000 8.684000 -1.127000 0 0 255 
-6.478000 8.642000 -1.127000 0 0 255 
-6.406000 8.490000 -1.106000 0 0 255 
-6.519000 8.583000 -1.124000 0 0 255 
-7.605000 8.474000 -1.199000 0 0 255 
-7.656000 8.478000 -1.203000 0 0 255 
-8.527000 8.456000 -1.275000 0 0 255 
-8.584000 8.458000 -1.280000 0 0 255 
-8.686000 8.505000 -1.293000 0 0 255 
-8.784000 8.546000 -1.305000 0 0 255 
-8.707000 8.420000 -1.288000 0 0 255 
-8.853000 8.480000 -1.306000 0 0 255 
-8.887000 8.459000 -1.307000 0 0 255 
-8.944000 8.460000 -1.312000 0 0 255 
-8.978000 8.438000 -1.313000 0 0 255 
-9.045000 8.448000 -1.320000 0 0 255 
-9.102000 8.448000 -1.325000 0 0 255 
-9.158000 8.446000 -1.330000 0 0 255 
-9.203000 8.461000 -1.336000 0 0 255 
-9.258000 8.457000 -1.340000 0 0 255 
-9.328000 8.468000 -1.347000 0 0 255 
-9.393000 8.473000 -1.354000 0 0 255 
-9.466000 8.485000 -1.361000 0 0 255 
-9.553000 8.509000 -1.371000 0 0 255 
-9.635000 8.527000 -1.380000 0 0 255 
-9.865000 8.702000 -1.416000 0 0 255 
-10.707000 9.383000 -1.549000 0 0 255 
-10.717000 9.332000 -1.545000 0 0 255 
-10.695000 9.254000 -1.537000 0 0 255 
-10.704000 9.204000 -1.534000 0 0 255 
-10.689000 9.133000 -1.527000 0 0 255 
-10.703000 9.087000 -1.524000 0 0 255 
-10.696000 9.024000 -1.519000 0 0 255 
-10.695000 8.994000 -1.516000 0 0 255 
-10.684000 8.927000 -1.510000 0 0 255 
-10.695000 8.880000 -1.507000 0 0 255 
-10.698000 8.826000 -1.503000 0 0 255 
-10.712000 8.781000 -1.501000 0 0 255 
-10.687000 8.705000 -1.493000 0 0 255 
-10.698000 8.657000 -1.490000 0 0 255 
-10.694000 8.627000 -1.488000 0 0 255 
-10.717000 8.590000 -1.487000 0 0 255 
-10.734000 8.549000 -1.485000 0 0 255 
-10.766000 8.518000 -1.486000 0 0 255 
-10.816000 8.503000 -1.490000 0 0 255 
-10.863000 8.485000 -1.493000 0 0 255 
-10.913000 8.469000 -1.497000 0 0 255 
-10.947000 8.467000 -1.500000 0 0 255 
-10.994000 8.449000 -1.503000 0 0 255 
-11.049000 8.436000 -1.507000 0 0 255 
-11.089000 8.412000 -1.510000 0 0 255 
-11.157000 8.408000 -1.516000 0 0 255 
-11.203000 8.387000 -1.519000 0 0 255 
-11.248000 8.366000 -1.522000 0 0 255 
-11.308000 8.355000 -1.527000 0 0 255 
-11.385000 8.384000 -1.537000 0 0 255 
-11.419000 8.354000 -1.538000 0 0 255 
-11.510000 8.365000 -1.548000 0 0 255 
-11.550000 8.339000 -1.550000 0 0 255 
-11.617000 8.332000 -1.556000 0 0 255 
-11.690000 8.329000 -1.563000 0 0 255 
-11.878000 8.406000 -1.587000 0 0 255 
-11.797000 8.321000 -1.573000 0 0 255 
-11.848000 8.301000 -1.577000 0 0 255 
-11.928000 8.301000 -1.585000 0 0 255 
-12.000000 8.295000 -1.592000 0 0 255 
-12.063000 8.283000 -1.597000 0 0 255 
-12.142000 8.281000 -1.605000 0 0 255 
-12.189000 8.258000 -1.608000 0 0 255 
-12.263000 8.279000 -1.617000 0 0 255 
-12.324000 8.264000 -1.622000 0 0 255 
-12.386000 8.249000 -1.628000 0 0 255 
-12.457000 8.240000 -1.634000 0 0 255 
-12.537000 8.237000 -1.642000 0 0 255 
-12.620000 8.234000 -1.651000 0 0 255 
-12.699000 8.229000 -1.658000 0 0 255 
-12.766000 8.216000 -1.665000 0 0 255 
-12.821000 8.222000 -1.671000 0 0 255 
-12.912000 8.223000 -1.680000 0 0 255 
-12.992000 8.217000 -1.688000 0 0 255 
-13.070000 8.208000 -1.695000 0 0 255 
-13.137000 8.193000 -1.702000 0 0 255 
-13.215000 8.184000 -1.709000 0 0 255 
-13.386000 8.203000 -1.728000 0 0 255 
-13.459000 8.190000 -1.735000 0 0 255 
-13.645000 8.185000 -1.754000 0 0 255 
-13.835000 8.181000 -1.774000 0 0 255 
-13.885000 8.123000 -1.776000 0 0 255 
-14.079000 8.176000 -1.800000 0 0 255 
-14.175000 8.173000 -1.810000 0 0 255 
-14.246000 8.154000 -1.816000 0 0 255 
-14.320000 8.136000 -1.823000 0 0 255 
-14.487000 8.111000 -1.839000 0 0 255 
-14.377000 7.990000 -1.820000 0 0 255 
-17.656000 9.698000 -2.274000 0 0 255 
-17.645000 9.620000 -2.268000 255 255 0 
-17.645000 9.548000 -2.264000 255 255 0 
-17.650000 9.479000 -2.260000 255 255 0 
-17.647000 9.406000 -2.256000 255 255 0 
-17.638000 9.330000 -2.250000 255 255 0 
-17.643000 9.298000 -2.249000 255 255 0 
-17.623000 9.217000 -2.242000 255 255 0 
-17.235000 -3.573000 -1.962000 0 0 255 
-17.218000 -3.682000 -1.962000 0 0 255 
-17.196000 -3.734000 -1.961000 0 0 255 
-17.202000 -3.792000 -1.963000 0 0 255 
-17.200000 -3.848000 -1.965000 0 0 255 
-17.203000 -3.906000 -1.966000 0 0 255 
-17.203000 -3.934000 -1.967000 0 0 255 
-17.196000 -3.989000 -1.968000 0 0 255 
-17.226000 -4.053000 -1.973000 0 0 255 
-17.215000 -4.108000 -1.974000 0 0 255 
-17.131000 -4.145000 -1.965000 0 0 255 
-17.087000 -4.191000 -1.961000 0 0 255 
-17.062000 -4.242000 -1.959000 0 0 255 
-16.994000 -4.253000 -1.951000 0 0 255 
-16.951000 -4.299000 -1.948000 0 0 255 
-16.976000 -4.362000 -1.953000 0 0 255 
-17.057000 -4.440000 -1.965000 0 0 255 
-17.041000 -4.493000 -1.964000 0 0 255 
-17.069000 -4.558000 -1.970000 0 0 255 
-16.957000 -4.585000 -1.957000 0 0 255 
-16.815000 -4.575000 -1.940000 0 0 255 
-11.632000 -8.618000 -1.578000 0 0 255 
-11.533000 -8.714000 -1.575000 0 0 255 
-11.487000 -8.764000 -1.575000 0 0 255 
-11.384000 -8.742000 -1.563000 0 0 255 
-11.368000 -8.786000 -1.565000 0 0 255 
-11.315000 -8.803000 -1.561000 0 0 255 
-11.273000 -8.827000 -1.559000 0 0 255 
-11.224000 -8.845000 -1.555000 0 0 255 
-11.194000 -8.879000 -1.555000 0 0 255 
-11.137000 -8.862000 -1.548000 0 0 255 
-11.141000 -8.923000 -1.553000 0 0 255 
-11.141000 -8.981000 -1.558000 0 0 255 
-11.073000 -8.983000 -1.551000 0 0 255 
-10.854000 -8.862000 -1.521000 255 255 0 
-10.927000 -8.979000 -1.537000 0 0 255 
-10.742000 -8.883000 -1.512000 255 255 0 
-10.691000 -8.897000 -1.508000 255 255 0 
-10.703000 -8.936000 -1.512000 255 255 0 
-10.643000 -8.942000 -1.507000 255 255 0 
-10.618000 -8.978000 -1.508000 255 255 0 
-10.567000 -8.992000 -1.504000 255 255 0 
-10.531000 -9.019000 -1.503000 255 255 0 
-10.436000 -8.995000 -1.492000 255 255 0 
-10.422000 -9.039000 -1.494000 255 255 0 
-10.366000 -9.019000 -1.488000 255 255 0 
-10.240000 -8.967000 -1.472000 255 255 0 
-10.236000 -9.020000 -1.476000 255 255 0 
-10.044000 -8.907000 -1.449000 255 255 0 
-10.024000 -8.945000 -1.450000 255 255 0 
-10.097000 -9.068000 -1.467000 255 255 0 
-9.963000 -9.004000 -1.449000 255 255 0 
-9.944000 -9.015000 -1.449000 255 255 0 
-9.935000 -9.064000 -1.452000 255 255 0 
-9.758000 -8.958000 -1.427000 0 0 255 
-9.932000 -9.176000 -1.461000 255 255 0 
-9.861000 -9.168000 -1.454000 255 255 0 
-9.859000 -9.225000 -1.458000 255 255 0 
-9.819000 -9.245000 -1.456000 255 255 0 
-9.745000 -9.204000 -1.446000 255 255 0 
-9.662000 -9.183000 -1.437000 255 255 0 
-9.438000 -9.026000 -1.404000 0 0 255 
-9.314000 -8.963000 -1.388000 0 0 255 
-9.522000 -9.222000 -1.428000 255 255 0 
-9.504000 -9.263000 -1.430000 255 255 0 
-9.405000 -9.223000 -1.418000 255 255 0 
-9.469000 -9.316000 -1.432000 255 255 0 
-9.367000 -9.273000 -1.419000 255 255 0 
-9.246000 -9.211000 -1.403000 0 0 255 
-9.203000 -9.226000 -1.401000 0 0 255 
-9.044000 -9.124000 -1.378000 0 0 255 
-9.094000 -9.231000 -1.392000 0 0 255 
-9.066000 -9.261000 -1.392000 0 0 255 
-9.016000 -9.268000 -1.388000 0 0 255 
-9.024000 -9.305000 -1.392000 0 0 255 
-9.019000 -9.359000 -1.396000 0 0 255 
-8.943000 -9.339000 -1.388000 0 0 255 
-8.437000 -8.864000 -1.303000 0 0 255 
-8.926000 -9.440000 -1.396000 0 0 255 
-8.811000 -9.376000 -1.380000 0 0 255 
-8.742000 -9.362000 -1.373000 0 0 255 
-8.659000 -9.301000 -1.361000 0 0 255 
-8.880000 -9.600000 -1.406000 255 255 0 
-8.894000 -9.676000 -1.414000 255 255 0 
-8.986000 -9.839000 -1.437000 255 255 0 
-8.910000 -9.879000 -1.434000 255 255 0 
-8.180000 -9.182000 -1.310000 0 0 255 
-8.077000 -9.095000 -1.294000 0 0 255 
-9.033000 -10.240000 -1.477000 0 0 255 
-9.058000 -10.335000 -1.488000 0 0 255 
-8.314000 -9.543000 -1.355000 0 0 255 
-8.023000 -9.267000 -1.306000 0 0 255 
-8.930000 -10.385000 -1.482000 0 0 255 
-8.900000 -10.416000 -1.483000 0 0 255 
-8.867000 -10.410000 -1.480000 0 0 255 
